ply
format ascii 1.0
element vertex 783
property float x
property float y
property float z
end_header
0.004563136491924524 0.007132881786674261 0.7078208923339844
0.10742596536874771 0.073907770216465 0.6064728498458862
-1.9769986867904663 0.36528727412223816 2.603350877761841
0.033750128000974655 -0.0619659386575222 0.6024891138076782
0.06331825256347656 -0.037269458174705505 0.36196228861808777
0.1283360868692398 -0.025266412645578384 0.20771105587482452
-0.17647691071033478 -0.0323195680975914 0.6472396850585938
0.050756074488162994 -0.01677381806075573 0.3941126763820648
-0.08610543608665466 -0.03907347843050957 0.13309471309185028
-0.10356741398572922 0.07768901437520981 0.8437400460243225
0.20177426934242249 0.02656240202486515 0.31637099385261536
0.09206308424472809 0.015032644383609295 0.11655441671609879
0.4469098448753357 0.012413050048053265 0.5663185119628906
-0.008927134796977043 -0.0747671127319336 -0.21324995160102844
0.34167957305908203 0.06352590024471283 0.6066930890083313
0.196249857544899 0.039720747619867325 0.3020748198032379
-0.2681163251399994 0.09070967137813568 0.8854427933692932
-0.49791666865348816 0.2172689288854599 1.0515090227127075
0.061553727835416794 -0.01298929750919342 0.2642304301261902
-1.8277555704116821 0.4192957282066345 3.0513274669647217
0.4108068346977234 0.03032154217362404 0.6226463317871094
0.16418179869651794 0.024400847032666206 0.241397887468338
-0.24770569801330566 0.08518102765083313 0.8462483882904053
0.2232801467180252 -0.10390351712703705 0.43638235330581665
0.2482585459947586 0.042334359139204025 0.3120465576648712
0.0908476784825325 -0.013064436614513397 0.4171428084373474
-0.2604507803916931 0.09694898873567581 0.9057402610778809
0.09499049186706543 0.01815352588891983 0.3516221344470978
0.049543872475624084 -0.0041719782166182995 0.28029540181159973
0.27305614948272705 0.034466829150915146 0.6579686403274536
-0.07175342738628387 -0.20636522769927979 0.06387542933225632
-0.00514640798792243 -0.03202375769615173 0.5793574452400208
-0.09686886519193649 0.07307253032922745 0.7686334848403931
-2.2367570400238037 0.4285336136817932 2.987412691116333
0.16929341852664948 0.04150944948196411 0.4454669654369354
-0.04694163054227829 -0.019918806850910187 0.7172743678092957
-3.0147693157196045 0.9462288022041321 5.566850185394287
-0.015635976567864418 0.0020521627739071846 0.4536592960357666
-0.015461337752640247 -0.012793321162462234 0.7155630588531494
-0.04431949183344841 0.029973553493618965 0.6590516567230225
0.10891595482826233 -0.02828114852309227 0.29713642597198486
-0.002789886901155114 0.021676603704690933 0.6391676068305969
-0.022281719371676445 -0.06182294711470604 -0.04685107618570328
-0.0683489665389061 -0.06418858468532562 0.3719973564147949
0.07579407095909119 0.025379914790391922 0.737311065196991
0.04206971079111099 -0.019208455458283424 0.40402257442474365
0.08708295226097107 0.001498043886385858 0.7873340845108032
-1.3591452836990356 0.26407480239868164 1.6830482482910156
-0.06202913075685501 0.022071044892072678 0.10973761975765228
0.0631958469748497 -0.03743526339530945 0.3707277476787567
-0.07679445296525955 -0.036952029913663864 0.12118593603372574
0.0763254389166832 -0.0173274464905262 -0.16106659173965454
-0.021495193243026733 -0.014416215941309929 -0.07487807422876358
-0.03151863068342209 -0.019095363095402718 -0.07615863531827927
-0.07274611294269562 -0.06949054449796677 0.27407413721084595
-0.003732218174263835 -0.03337154909968376 0.14318285882472992
-0.18991118669509888 -0.07039090991020203 0.7744190692901611
-0.604993999004364 0.17468762397766113 1.0163366794586182
0.13631893694400787 0.03726140409708023 0.26921647787094116
-0.578637957572937 0.122906893491745 1.0669639110565186
0.07498105615377426 0.0013468115357682109 0.11355312913656235
0.18121758103370667 0.03416760638356209 0.2609592080116272
0.025845037773251534 -0.04084384813904762 0.03518100082874298
-3.2990164756774902 0.4706314504146576 4.090982913970947
-0.1443195343017578 -0.009847339242696762 -0.1775519996881485
-0.07164152711629868 0.0029469041619449854 -0.19100011885166168
0.18303228914737701 0.03332424908876419 0.26679742336273193
0.11126264929771423 -0.019504593685269356 0.2758800983428955
0.17155712842941284 0.021142754703760147 0.23241956532001495
0.03983462229371071 -0.05049996078014374 0.14776019752025604
0.17928673326969147 0.026460185647010803 0.2558218836784363
0.1310846209526062 -0.02598055824637413 0.2189001888036728
-0.2853847146034241 0.09804404526948929 0.9299802780151367
0.18771596252918243 0.05239039659500122 0.7436538338661194
1.1237280368804932 -0.37720200419425964 -1.697652816772461
0.8020697832107544 -0.3684854209423065 -1.612635850906372
0.22416846454143524 -0.08969983458518982 0.39872482419013977
0.13727235794067383 0.01646372675895691 0.19475114345550537
-0.36910280585289 0.05849333107471466 0.7047346234321594
0.18665333092212677 0.042966168373823166 0.42544054985046387
0.287222295999527 0.04449871927499771 0.43213266134262085
0.04770812764763832 -0.03739050403237343 0.21943385899066925
-0.05891282111406326 -0.1813441663980484 0.385398268699646
-1.5166776180267334 0.2657400369644165 2.610023260116577
-0.0966658815741539 -0.06253205984830856 -0.3921690881252289
0.16000910103321075 -0.02063637599349022 0.811341404914856
-0.034659888595342636 -0.011809658259153366 -0.12754341959953308
0.01690037176012993 -0.027827925980091095 0.18318256735801697
-0.010172378271818161 0.0393756628036499 0.23234598338603973
-2.4424033164978027 0.6295265555381775 3.8352208137512207
-0.9000454545021057 0.12108197808265686 1.2032700777053833
0.5632013082504272 -0.20197133719921112 -0.7048581838607788
-0.33127814531326294 0.11685409396886826 0.9741865396499634
-0.3224197328090668 0.09761681407690048 0.9539099931716919
-0.034379880875349045 -0.019643153995275497 0.39763447642326355
-0.06141427159309387 -0.023375215008854866 -0.23934206366539001
-0.16575013101100922 -0.008218211121857166 -0.1867281049489975
-0.3169504702091217 0.11478492617607117 0.9486269354820251
-1.0395325422286987 0.435452938079834 1.489674687385559
-1.1818668842315674 0.2306971251964569 1.5573557615280151
5.051191329956055 -1.3547494411468506 -7.0358781814575195
-0.10401120781898499 -0.02202819101512432 -0.28680920600891113
-0.013693980872631073 -0.05799590051174164 0.03292318806052208
-0.22286589443683624 0.0806853324174881 0.8407581448554993
-0.122646264731884 0.0483880341053009 0.8506507873535156
-0.12361136078834534 -0.01271117851138115 -0.33125874400138855
-0.06521526724100113 -0.02876369282603264 0.10920476168394089
-0.24370381236076355 0.01121204812079668 0.8591908812522888
-0.6068430542945862 0.18799446523189545 1.1623611450195312
0.06014348194003105 0.0010148984147235751 0.14800375699996948
-0.7428449392318726 0.3235337734222412 1.8723338842391968
-0.007305387407541275 -0.006877388339489698 -0.04165058583021164
0.005803268402814865 -0.029203150421380997 -0.8244771957397461
0.2187701314687729 0.007663792930543423 0.3623504638671875
0.33450764417648315 0.0435611791908741 0.6195318698883057
-0.2868848443031311 -0.01306121051311493 0.9435728192329407
0.017083745449781418 -0.012435912154614925 0.09850719571113586
-0.12996281683444977 -0.023832812905311584 -0.16574232280254364
0.004790866747498512 -0.03968748450279236 0.18411989510059357
0.3148241341114044 -0.04335979372262955 -0.39028483629226685
-0.18246755003929138 0.07607240229845047 0.7584024667739868
-0.26133543252944946 0.10076887905597687 0.9006107449531555
-0.24458906054496765 0.08887796849012375 0.9071058034896851
0.10015875846147537 -0.040606915950775146 0.576971173286438
0.19983753561973572 0.05192510038614273 0.738662838935852
0.2922726571559906 0.04348394647240639 0.39644598960876465
0.046635083854198456 -0.008442793041467667 -0.07753856480121613
0.1816912591457367 -0.005495782941579819 0.4976164400577545
0.09185551851987839 -0.025987552478909492 0.16016094386577606
0.10159634053707123 -0.026674620807170868 0.24733451008796692
-0.5995070338249207 0.17531368136405945 1.0155832767486572
0.1034134179353714 -0.03488020598888397 0.13989751040935516
-0.13556799292564392 0.0328189954161644 0.5507340431213379
0.16774897277355194 -0.03275257349014282 0.8250517845153809
-0.28848105669021606 0.09996743500232697 0.9677457809448242
-0.021726882085204124 -0.06333580613136292 -0.035207267850637436
-0.0009288766887038946 -0.020398475229740143 0.3661893308162689
0.0073306262493133545 0.041144583374261856 0.19699224829673767
-0.5085087418556213 0.1697143167257309 1.0550581216812134
0.1863260716199875 -0.05558432638645172 -0.25880166888237
-0.14125461876392365 0.05710001289844513 0.8635252714157104
0.0485234335064888 -0.038419827818870544 0.07840371131896973
-0.5768134593963623 0.16368818283081055 0.9348795413970947
-0.4124123454093933 0.1237616091966629 1.0104260444641113
0.012991394847631454 -0.011127091012895107 0.14126312732696533
0.07301015406847 0.0031798435375094414 0.11911877244710922
0.11397972702980042 -0.014521108008921146 0.3136942386627197
-0.40967434644699097 0.11449243128299713 1.094314455986023
0.6978387236595154 -0.21519169211387634 -0.9352272748947144
0.22819823026657104 0.06384918093681335 0.4429284334182739
-0.23359361290931702 -0.011254587210714817 0.7869902849197388
-0.03576188534498215 -0.01704227924346924 -0.06581059843301773
0.08256596326828003 -0.02230994589626789 0.24185556173324585
-1.7450653314590454 0.40563955903053284 2.43637752532959
0.21908368170261383 0.05507191643118858 0.4336582124233246
-0.08224167674779892 0.07002758979797363 0.6349291205406189
0.4966629445552826 -0.16436873376369476 -0.6528966426849365
0.5051579475402832 0.02007341757416725 0.6110125780105591
-0.005035563837736845 -0.0037445626221597195 -0.07070919871330261
-0.8582723140716553 0.1442241668701172 1.1344735622406006
0.15141761302947998 0.0406942218542099 0.374088317155838
-0.3293083608150482 0.07874634861946106 0.8846005201339722
-0.05072982236742973 0.0004504180687945336 0.4967667758464813
0.1414438784122467 0.062160056084394455 0.6225219964981079
0.7301507592201233 -0.2893472909927368 -0.995111346244812
0.1549152433872223 0.08165151625871658 0.7660784125328064
0.11816181242465973 -0.045317865908145905 0.3471009433269501
0.2489681988954544 0.03060947172343731 0.3697885274887085
0.1712694615125656 0.014560653828084469 0.2523745000362396
0.06498074531555176 -0.01840781420469284 0.3004668056964874
-0.20944173634052277 0.08699475973844528 0.8723233342170715
0.004576606210321188 -0.007083032745867968 0.2788407504558563
-0.4234994649887085 0.12283419817686081 0.9556297659873962
0.1520136147737503 0.039910439401865005 0.6213774085044861
-1.160395860671997 0.20100563764572144 2.021832227706909
0.10388905555009842 0.017546257004141808 0.5083602070808411
-0.08482689410448074 -0.03935971483588219 0.12031114101409912
0.3996274471282959 0.022470461204648018 0.6356779932975769
-0.7979623675346375 0.24507957696914673 1.0545156002044678
-0.09740649908781052 0.01831713505089283 0.6378983855247498
-0.021058395504951477 -0.000726189638953656 0.4166077971458435
0.016871999949216843 -0.055217351764440536 0.07717271894216537
-0.21168307960033417 -0.10026288777589798 0.785344123840332
-0.03919227421283722 -0.019059212878346443 -0.06479965150356293
0.0014492013724520802 0.02303139679133892 0.6804278492927551
-0.04275932535529137 -0.004188858903944492 0.7386906743049622
-0.012651479803025723 0.04384671151638031 0.7689318656921387
0.1482696533203125 0.017428336665034294 0.29425665736198425
-2.242277145385742 0.43223416805267334 2.9951064586639404
0.25253668427467346 -0.13509736955165863 0.36863386631011963
-0.43467003107070923 0.1141868308186531 1.1836358308792114
0.3069338798522949 0.039414625614881516 0.4697466790676117
-1.3624093532562256 0.43739160895347595 2.1846413612365723
0.16652783751487732 0.04345047473907471 0.7042087912559509
0.08073227107524872 0.017673786729574203 0.1253318339586258
-0.7792255282402039 0.1377362310886383 1.35621178150177
-0.5904229879379272 0.1288153976202011 1.0916478633880615
0.37731707096099854 -0.06927744299173355 -0.4671635329723358
-1.9091477394104004 0.391887366771698 3.298788070678711
2.30019211769104 -0.4886387288570404 -3.019134759902954
0.5035557746887207 -0.17201268672943115 -0.668294370174408
-0.5125865936279297 0.13679835200309753 0.9462471008300781
-0.5014651417732239 0.14248812198638916 0.9556261897087097
0.15074534714221954 0.02430500090122223 0.2360345721244812
0.02948135696351528 -0.01900634728372097 -0.14716584980487823
0.60325688123703 -0.13252364099025726 -1.0946388244628906
0.16260604560375214 -0.024968517944216728 0.3654339611530304
-0.25198522210121155 0.09624365717172623 0.8850221037864685
0.12572677433490753 0.05523495376110077 0.6338220834732056
0.014580021612346172 -0.05235780030488968 0.11426563560962677
-0.03773538023233414 0.0038879767525941133 0.05044427141547203
-0.13734841346740723 0.034183140844106674 0.5562852621078491
-0.8082427978515625 0.18639716506004333 1.4307657480239868
-0.08974491059780121 0.0746624693274498 0.7618126273155212
0.46053385734558105 -0.1218385100364685 0.7126704454421997
0.18247947096824646 -0.0032219523563981056 0.5022987127304077
-0.2673119306564331 0.08613315969705582 0.9186754822731018
0.1890449970960617 0.046658795326948166 0.7448387742042542
-0.1237948015332222 -0.21813291311264038 0.6037228107452393
0.06087888777256012 -0.00014035218919161707 0.15106648206710815
0.0022296051029115915 -0.0501650869846344 0.6984770894050598
-0.5411092042922974 0.18352387845516205 1.8310929536819458
-0.2503817081451416 0.0862693190574646 0.8633653521537781
-0.001811366993933916 0.0015401942655444145 0.059601426124572754
-0.013831005431711674 0.005051450338214636 0.6038504838943481
0.006518547423183918 0.001683213748037815 0.5788806080818176
-0.022191183641552925 0.031671471893787384 0.45817819237709045
-0.7985900640487671 0.1293950080871582 1.3091914653778076
-0.23165811598300934 -0.07462085038423538 0.906699001789093
-0.24117271602153778 0.0847567692399025 0.6073811650276184
0.1639467030763626 0.03380494937300682 0.34735238552093506
-0.028400231152772903 0.06539320945739746 0.8460566997528076
-0.023980306461453438 -0.00489956047385931 0.5464316010475159
-0.11650059372186661 0.021774033084511757 0.6139835715293884
0.0223892442882061 0.04550687596201897 0.5056029558181763
-0.24250754714012146 0.010774106718599796 0.8568146228790283
-0.7966465353965759 0.17315293848514557 1.2019747495651245
0.08436566591262817 -0.03298468515276909 0.19576436281204224
-0.3258536458015442 0.11379363387823105 0.9700708985328674
-0.11880163103342056 0.04260943830013275 0.8825955986976624
-7.940648078918457 1.8750135898590088 9.987004280090332
0.07673662900924683 -0.05841847136616707 0.27669039368629456
-0.47528210282325745 0.1118941456079483 1.0076831579208374
-0.1289188116788864 -0.01699698716402054 -0.2532818913459778
-0.4190094470977783 0.12739789485931396 0.969741940498352
-0.1877577304840088 -0.10334791988134384 0.7593311667442322
0.12473855167627335 0.040812015533447266 0.2971401512622833
0.17133505642414093 0.0409681461751461 0.47440245747566223
-0.23327623307704926 0.08113173395395279 0.46965914964675903
0.17224426567554474 -0.0919700562953949 -0.2236522138118744
-18.948097229003906 5.683595657348633 34.384803771972656
-0.5007009506225586 0.169724240899086 1.2196671962738037
0.0824052020907402 -0.09806780517101288 0.6059696078300476
0.30633196234703064 0.05760527029633522 0.5436244606971741
0.15837079286575317 -0.1576150804758072 0.4666297733783722
0.11368276923894882 -0.033768996596336365 0.19233444333076477
0.3714081346988678 -0.08567315340042114 0.7391552925109863
-0.012458277866244316 -0.0016854919958859682 0.22229190170764923
-3.4161128997802734 0.8543484210968018 5.104671955108643
0.27897506952285767 0.027485372498631477 0.35609692335128784
0.15289300680160522 0.037856295704841614 0.6081862449645996
-0.318442165851593 0.09568431228399277 0.9596480131149292
-0.2775304913520813 -0.05212152749300003 0.889502227306366
0.030775029212236404 -0.04233352094888687 0.15835058689117432
0.13564713299274445 -0.08872939646244049 0.4236910045146942
0.21236492693424225 -0.09619960188865662 0.505591630935669
-1.54666006565094 0.5199723839759827 2.7072410583496094
0.18781408667564392 -0.08354443311691284 0.4040675163269043
0.31448063254356384 0.0636940747499466 0.6137505769729614
0.31335675716400146 -0.06302822381258011 -0.39544788002967834
0.13451601564884186 0.03715318813920021 0.48308607935905457
-0.21000748872756958 0.08639532327651978 0.872916042804718
-0.0872446745634079 0.007669446058571339 0.10390642285346985
0.06198378652334213 -0.011606501415371895 0.6713528633117676
0.36505505442619324 -0.08085097372531891 0.7443963289260864
0.05910591408610344 -0.01272937934845686 0.2592511773109436
-1.0177561044692993 0.1574990302324295 1.6125209331512451
0.019250134006142616 -0.05078685283660889 0.0677357092499733
0.13128837943077087 0.0553145669400692 0.6322764158248901
-0.015065568499267101 0.03697875514626503 0.6188039779663086
1.8073365688323975 -0.28397342562675476 -2.2564737796783447
0.14648909866809845 0.016820386052131653 0.2903346121311188
-0.16710947453975677 0.05029536038637161 0.4606724679470062
0.04956783354282379 -0.0456133633852005 0.18108431994915009
-0.03355763107538223 0.0032982241827994585 0.5404506325721741
0.07766051590442657 -0.03567718714475632 0.09783662855625153
-0.042444098740816116 0.02096138522028923 0.5038793683052063
0.14868462085723877 -0.058017536997795105 -0.28354209661483765
-0.2054789513349533 -0.07943449914455414 0.817503809928894
-0.022781865671277046 -0.06266749650239944 -0.048199426382780075
0.05497778579592705 -0.007940399460494518 0.29571157693862915
-0.325677752494812 0.1060045138001442 0.95718914270401
-0.8379936218261719 0.128184974193573 1.409501075744629
-0.15800030529499054 0.06414154171943665 0.8741226196289062
0.13471737504005432 -0.011499734595417976 0.3333575129508972
-0.21215806901454926 0.046195436269044876 0.46044760942459106
0.2377004623413086 0.04968283697962761 0.4393486976623535
-1.485061764717102 0.48702988028526306 2.3903396129608154
0.09959180653095245 -0.01651592180132866 0.18523305654525757
-0.246451735496521 0.08234431594610214 0.8799610733985901
-1.314918041229248 0.394117146730423 2.721503973007202
0.022172337397933006 -0.024554235860705376 0.3303268551826477
0.06240192428231239 0.011360798962414265 0.14693626761436462
-0.35854947566986084 0.10552037507295609 0.984032154083252
-0.6710910797119141 0.24598471820354462 1.4108468294143677
-0.3794688880443573 0.11476659029722214 1.0561516284942627
-0.32147669792175293 0.02940453216433525 0.9644980430603027
0.23940692842006683 0.05048919841647148 0.4342736005783081
0.4147200882434845 0.033245522528886795 0.6278188824653625
0.03819381818175316 -0.038060400635004044 0.5243908762931824
-0.3915143609046936 0.11560431122779846 1.0615720748901367
0.1484692394733429 0.03627750650048256 0.27227547764778137
-0.04757579788565636 0.04081069305539131 0.7522115111351013
0.1654171347618103 -0.025666097179055214 0.213197261095047
-0.4719456434249878 0.1404867172241211 1.1005542278289795
-0.5989315509796143 0.16385897994041443 1.4431101083755493
-0.19513514637947083 0.07390685379505157 0.9086449146270752
0.137471005320549 -0.026242844760417938 0.34772610664367676
-0.03236321732401848 -0.018833262845873833 -0.07879897952079773
0.18793651461601257 0.03397376835346222 0.44830766320228577
-0.02924645133316517 0.003589748404920101 0.038337592035532
-0.07435061037540436 -0.036890093237161636 0.09579354524612427
17.571992874145508 -6.3287882804870605 -28.710033416748047
0.11197752505540848 0.03805329650640488 0.43351495265960693
-0.059077948331832886 -0.07393402606248856 0.38120728731155396
-1.9345545768737793 0.5393579006195068 3.3205769062042236
0.2653042674064636 0.042652782052755356 0.7278083562850952
0.04499509930610657 -0.008968569338321686 0.29687273502349854
0.002952244598418474 0.019470594823360443 0.6037865877151489
0.13422103226184845 -0.07380136847496033 0.39504238963127136
-0.08187359571456909 0.05372459068894386 0.7174904942512512
-0.0164111889898777 0.0017613505478948355 0.5179743766784668
0.5277918577194214 -0.1974007934331894 -0.6596213579177856
-0.031151410192251205 -0.04749784618616104 0.056669630110263824
0.4171834886074066 0.04457798972725868 0.6429939270019531
0.10383225977420807 -0.012303526513278484 0.33628472685813904
0.039280764758586884 -0.05594014748930931 0.6635763645172119
-0.300946444272995 0.04720126837491989 0.9517319202423096
-0.32032516598701477 0.10489632189273834 0.9567458033561707
-0.6971537470817566 0.15788885951042175 1.1436867713928223
-0.41131386160850525 0.19744086265563965 1.0424975156784058
-2.170945882797241 0.2903425693511963 2.708170175552368
-0.3188876509666443 0.10417897999286652 0.9611195921897888
0.02384101413190365 -0.026188287883996964 0.22600440680980682
-0.20229414105415344 0.07771605998277664 0.9214910268783569
0.20882274210453033 0.05213665962219238 0.4655843675136566
-0.37609750032424927 0.10525267571210861 0.9763694405555725
-0.0018398246029391885 -0.01932857558131218 -0.004611777141690254
0.21557822823524475 0.04486401006579399 0.41500595211982727
-2.633803606033325 0.6702011823654175 4.15032434463501
0.12160635739564896 0.06542915850877762 0.7918156385421753
-0.10955934971570969 0.019778631627559662 0.6145631074905396
-0.26405617594718933 0.08967895805835724 0.8721627593040466
-0.3781343698501587 0.09820447117090225 0.9693982601165771
0.44375041127204895 0.06371328979730606 0.6008940935134888
0.04332895949482918 -0.05764608457684517 -0.04423891007900238
-0.12663130462169647 0.04532688856124878 0.616453230381012
-0.2618143856525421 0.018646638840436935 0.9100684523582458
-0.09253206104040146 0.07928527146577835 0.8616061806678772
-0.3238961696624756 0.11095969378948212 0.9673330783843994
-0.6921066045761108 0.13800162076950073 1.084986925125122
0.11442290246486664 0.040253568440675735 0.3443636894226074
-1.0241985321044922 0.3722400367259979 2.101472854614258
0.026636913418769836 0.04074377566576004 0.4017699360847473
-0.37167441844940186 0.1148785874247551 0.8858560919761658
-0.018593918532133102 -0.000764351396355778 -0.04515261575579643
-0.27735036611557007 0.0926765501499176 0.9222683310508728
-0.009064538404345512 -0.05083826184272766 -0.036454424262046814
-0.19618172943592072 0.08438321948051453 0.7684041261672974
-0.6449512839317322 0.22022195160388947 1.5684911012649536
0.17946547269821167 -0.11772158741950989 0.4368593394756317
-0.277485191822052 0.09988518804311752 0.9230325222015381
-0.5777162909507751 0.17802412807941437 1.1014069318771362
-0.5390592217445374 0.15777164697647095 1.0021597146987915
0.42097896337509155 0.08804626017808914 0.6044834852218628
0.0944196954369545 0.046069562435150146 0.2257566899061203
0.20452164113521576 -0.02064252831041813 0.2674672603607178
0.7415269017219543 -0.7872167825698853 -3.4096803665161133
0.030874129384756088 0.07355620712041855 0.7309108972549438
0.43535807728767395 0.05824877321720123 0.5551547408103943
0.11650892347097397 -0.024633750319480896 0.31553974747657776
0.0739908367395401 -0.022352172061800957 0.24313941597938538
0.6151306629180908 -0.24022026360034943 -0.8673179745674133
0.043555743992328644 -0.005693867336958647 0.1073656976222992
0.0436604879796505 -0.00561605766415596 0.10819502919912338
0.02977806143462658 -0.04017947241663933 0.17099027335643768
0.15011456608772278 0.018698807805776596 0.29792076349258423
0.19621878862380981 -0.10009805858135223 0.4761151373386383
0.17528697848320007 0.025236209854483604 0.42612308263778687
0.1386595368385315 0.005814380012452602 0.34597015380859375
-0.6920254826545715 0.13296747207641602 1.1139024496078491
0.21768179535865784 0.00038985683931969106 0.6845857501029968
-0.17289027571678162 -0.03625083714723587 0.6747998595237732
-0.32517296075820923 0.10916853696107864 0.9673826694488525
-0.02874976024031639 -0.05801282823085785 -0.031619057059288025
0.21620838344097137 0.0483221635222435 0.41541236639022827
0.07263670861721039 0.053386390209198 0.7008730173110962
-0.5785194635391235 0.18709640204906464 1.3939930200576782
-0.015342729166150093 0.012841924093663692 0.3002545237541199
-0.08942901343107224 -0.06029171124100685 0.2199050337076187
0.26399004459381104 0.026407161727547646 0.35505256056785583
-0.014664833433926105 -0.011033838614821434 0.40956464409828186
0.12578697502613068 0.0405929796397686 0.29838037490844727
-1.150397539138794 0.2231346219778061 1.56295645236969
-0.062404174357652664 0.04284440726041794 0.6254292726516724
0.08571138232946396 0.02749645709991455 0.7379896640777588
0.32059445977211 0.04299963265657425 0.6771270632743835
0.1271175742149353 0.016764607280492783 0.7683938145637512
0.039545170962810516 0.031664300709962845 0.058014605194330215
0.2809837758541107 0.030777469277381897 0.6494437456130981
-0.5209937691688538 0.11566484719514847 1.0860258340835571
0.1569509655237198 -0.03269091248512268 0.42305120825767517
0.4159262180328369 0.042464591562747955 0.49944067001342773
-0.17048200964927673 0.06566157937049866 0.9124629497528076
0.16972211003303528 0.037692829966545105 0.40573105216026306
-0.3364245891571045 0.11125217378139496 1.0054773092269897
0.23266993463039398 -0.11866296082735062 0.49073922634124756
-0.5099882483482361 0.14845001697540283 0.9852381348609924
-0.47404688596725464 0.10940025001764297 1.0205756425857544
0.07764391601085663 0.03704260662198067 0.5647139549255371
0.7911902070045471 -0.24517996609210968 -1.1917444467544556
0.2340373545885086 0.02064395882189274 0.3339497447013855
-0.405929833650589 0.10523355007171631 0.9950861930847168
-0.43518728017807007 0.15904299914836884 1.0587443113327026
0.09821492433547974 0.04255121573805809 0.32141727209091187
-0.3451049327850342 0.10642384737730026 0.8339627385139465
-0.09914505481719971 -0.06714721769094467 -0.14927911758422852
-0.09643952548503876 0.07585901767015457 0.6387173533439636
0.12515723705291748 0.07804330438375473 0.6078144907951355
0.09039769321680069 0.03132234141230583 0.33423930406570435
0.11607950925827026 -0.025419997051358223 0.3206079304218292
0.11022577434778214 -0.022989273071289062 0.2142445147037506
-0.10232404619455338 0.0259527750313282 0.6307207942008972
-0.012100900523364544 -0.062410175800323486 -0.038278091698884964
-0.3958953022956848 0.16705791652202606 1.0139051675796509
-0.29595258831977844 0.09820988774299622 0.9665902256965637
0.010232355445623398 0.028497260063886642 0.40506476163864136
0.4227183759212494 -0.10807237774133682 0.7284238338470459
-0.11481169611215591 0.04227231442928314 0.8803151845932007
0.014708689413964748 -0.003739607520401478 0.34150922298431396
-0.5088049173355103 0.12275441735982895 1.0350873470306396
-0.2769327759742737 0.09099773317575455 0.9408096075057983
-0.6045157313346863 0.13587543368339539 1.1088048219680786
-1.194795846939087 0.17383620142936707 1.5141654014587402
-0.010889183729887009 0.049623243510723114 0.8397078514099121
0.08912456035614014 -0.029896749183535576 0.21525849401950836
-0.20637038350105286 0.0818450078368187 0.822218656539917
-2.9328579902648926 0.9407885074615479 5.458441257476807
0.11216113716363907 -0.0361352264881134 0.21108724176883698
0.015180958434939384 0.03599895164370537 0.7464419603347778
0.044598545879125595 0.07174843549728394 0.7281999588012695
0.19113783538341522 0.03217466175556183 0.5885987877845764
0.0014392896555364132 0.022282665595412254 0.6638110280036926
0.029488544911146164 -0.05655689164996147 0.5949806571006775
0.04650603234767914 -0.007726258132606745 0.4747060239315033
-0.5608565211296082 0.1800350695848465 1.35332190990448
0.09151194244623184 -0.028219936415553093 0.21826240420341492
0.03847866877913475 -0.013805036433041096 0.35121122002601624
-0.023444250226020813 -0.06114280968904495 0.6943745017051697
0.04475520923733711 -0.015976954251527786 0.44125446677207947
-0.1905687004327774 0.07400534301996231 0.7485824823379517
-0.4013507068157196 0.10731860995292664 1.0419282913208008
-0.7278016209602356 0.13790027797222137 1.1064554452896118
0.13620297610759735 -0.18299074470996857 0.5515209436416626
-0.0582391656935215 -0.007278548553586006 0.508003830909729
-0.6416664719581604 0.19714795053005219 1.0635982751846313
0.3018057942390442 -0.061063870787620544 -0.37669262290000916
-0.024081207811832428 0.012680132873356342 -0.026272235438227654
-1.0477616786956787 0.27763643860816956 1.9382789134979248
-0.1865227371454239 -0.10723011195659637 0.7546084523200989
0.14812709391117096 -0.1082661971449852 0.5027837753295898
0.14384976029396057 -0.12159311771392822 0.491305410861969
0.07415634393692017 0.007634501904249191 0.10192099213600159
0.23807299137115479 0.04066963866353035 0.6847952008247375
2.3446407318115234 -0.32895615696907043 -2.904205083847046
0.25416243076324463 0.03864215686917305 0.7370185852050781
-0.5471515655517578 0.12336592376232147 1.0668609142303467
0.05204084515571594 0.014271164312958717 0.17095845937728882
0.028276856988668442 -0.0072617921978235245 0.3628283143043518
-0.0733562633395195 0.032998427748680115 0.5904766917228699
0.29619187116622925 0.059500448405742645 0.4223383963108063
0.01219456922262907 -0.0007220943225547671 0.23373769223690033
0.1956711858510971 -0.05092267319560051 -0.2920776605606079
-1.1581273078918457 0.25266358256340027 1.7924938201904297
-0.003705105744302273 -0.026444613933563232 -0.11349935829639435
0.2733987867832184 0.04642121493816376 0.7463832497596741
0.18449510633945465 0.03843870013952255 0.274584025144577
-0.1540815383195877 0.11126979440450668 0.8459804058074951
-0.679892897605896 0.16499747335910797 1.0663292407989502
0.27768757939338684 -0.010693837888538837 0.36660632491111755
-0.19358263909816742 0.050131380558013916 0.7884138226509094
-0.41124701499938965 0.11521513015031815 0.9845730066299438
-0.059787165373563766 0.049496524035930634 -0.18128155171871185
-0.04294106736779213 -0.03330567851662636 0.49269241094589233
0.11507980525493622 0.04510219395160675 0.6356856822967529
0.033758245408535004 -0.02069837786257267 0.3082083463668823
-0.43171775341033936 0.11334940791130066 1.0277432203292847
-0.008692635223269463 -0.004722345620393753 -0.03393816947937012
0.04684557765722275 0.03687860444188118 0.07670622318983078
-0.2745796740055084 0.02303311415016651 0.9313563704490662
0.019997799769043922 0.048345111310482025 0.8391765356063843
-0.4646066129207611 0.1490042805671692 1.0509084463119507
-0.010516180656850338 0.03956113010644913 0.23393109440803528
0.2849310338497162 0.05848418548703194 0.5559077262878418
0.04712924361228943 0.019968921318650246 0.43256986141204834
-2.1089463233947754 0.3403729200363159 2.727938413619995
0.01712348312139511 -0.04099401459097862 0.058767497539520264
-0.2913439869880676 -0.046010397374629974 0.9337496757507324
5.473330974578857 -0.9508154392242432 -8.015347480773926
-0.0969199612736702 -0.055591944605112076 0.49196651577949524
-0.9357056021690369 0.16223357617855072 1.2407430410385132
-1.797824740409851 0.2961866557598114 2.4798121452331543
0.024636652320623398 -0.045511893928050995 0.3629879653453827
-0.20102444291114807 0.035918932408094406 0.29877346754074097
-0.15808162093162537 0.07207213342189789 0.7531185150146484
-0.03486546128988266 -0.018625851720571518 -0.09175816178321838
0.012666127644479275 0.044709138572216034 0.7972475290298462
-0.35322967171669006 0.09834402799606323 0.980299711227417
0.16980735957622528 0.043237507343292236 0.4644708037376404
-1.9389227628707886 0.48664170503616333 3.0967750549316406
-0.010144316591322422 -0.011875315569341183 0.08600062131881714
-0.5774136185646057 0.12179816514253616 1.0639886856079102
0.374946266412735 0.02829577773809433 0.5022598505020142
0.14079828560352325 -0.03237876668572426 0.3087526261806488
-2.0028927326202393 0.6353179812431335 3.3804776668548584
0.0359552800655365 -0.020368538796901703 0.6856958866119385
-0.0010705426102504134 0.005685466341674328 -0.11777538061141968
-0.000604518223553896 -0.03229372575879097 0.4236674904823303
-0.3679245412349701 0.11112742125988007 1.0283615589141846
0.2327430695295334 0.037718091160058975 0.3813791275024414
-0.690504789352417 0.1974780559539795 1.0375347137451172
0.029581893235445023 -0.0041748350486159325 0.04026404768228531
0.15763388574123383 -0.03276098519563675 0.4267815053462982
-0.11908545345067978 0.017735639587044716 0.5879667401313782
-0.2405223697423935 0.1001206487417221 0.9043557047843933
0.0027047675102949142 -0.010168415494263172 -0.09284188598394394
0.09041933715343475 -0.02802201360464096 0.18737585842609406
-0.4199000298976898 0.12748196721076965 1.0014352798461914
0.929229199886322 -0.41033118963241577 -1.847771406173706
-0.047895532101392746 -0.00584260793402791 0.3751392066478729
0.16800139844417572 -0.031151827424764633 0.23392809927463531
-0.4868346154689789 0.1379934549331665 0.9619349837303162
0.12321485579013824 0.020195014774799347 0.3026156723499298
-0.36489346623420715 0.11019652336835861 0.9583832621574402
-0.908865213394165 0.20017056167125702 1.2435625791549683
-0.088640496134758 0.044249892234802246 0.47945842146873474
0.07811790704727173 -0.0193376112729311 0.24683915078639984
0.057925865054130554 -0.04949699714779854 0.6102426648139954
0.0475180521607399 0.015895545482635498 0.17019213736057281
-0.08986116200685501 0.0199201088398695 0.6142616271972656
0.01907173916697502 0.04021822661161423 0.45468848943710327
0.18738697469234467 0.023176919668912888 0.22333590686321259
-0.04562878608703613 -0.0032140568364411592 0.03532352298498154
0.05884182080626488 0.050085313618183136 0.1702326089143753
0.07515458017587662 -0.01327043492347002 0.24247993528842926
-0.02736317738890648 0.04757820442318916 0.8379261493682861
0.22980812191963196 -0.07939452677965164 0.3537743389606476
0.1650090217590332 -0.01170608401298523 0.30123370885849
-0.01107562705874443 0.05271828919649124 0.8399831056594849
0.23292459547519684 0.037477314472198486 0.7287051677703857
0.2423175573348999 0.03557340055704117 0.6929076910018921
1.7776223421096802 -0.3031039237976074 -2.2192349433898926
-0.35051676630973816 0.10499787330627441 0.9646314978599548
0.059055671095848083 -0.016271470114588737 -0.11996514350175858
0.1613025814294815 0.018984729424118996 0.1922958344221115
-0.24047969281673431 0.08882796764373779 0.930863082408905
-0.2546060383319855 0.09508967399597168 0.8915533423423767
-0.6291025280952454 0.187348410487175 1.0205765962600708
-0.10139856487512589 0.022094398736953735 0.22949616611003876
-3.3872170448303223 0.7101326584815979 4.451553821563721
-0.6943686604499817 0.13776075839996338 1.118146300315857
-0.10987728834152222 0.01688544824719429 0.1538534164428711
-0.6928900480270386 0.2194015085697174 1.1808007955551147
0.28870949149131775 0.04496247321367264 0.7119218111038208
0.1354108303785324 -0.012295769527554512 0.3333812355995178
-0.5547719597816467 0.16726358234882355 1.0051783323287964
-0.2589963674545288 0.09329383075237274 0.8941565752029419
0.027685146778821945 0.013663912191987038 0.3768172860145569
-0.16316789388656616 0.06334222108125687 0.9089974761009216
0.12711603939533234 0.01628207042813301 0.3016200363636017
0.009462407790124416 0.010805726051330566 0.2689683139324188
-1.098791480064392 0.17251333594322205 1.6874135732650757
0.04222552850842476 0.025761982426047325 0.7247511744499207
0.4036185145378113 0.028114832937717438 0.6511609554290771
-0.008838515728712082 0.09442262351512909 0.8171180486679077
0.28530338406562805 0.0466083362698555 0.5626083016395569
-0.055549610406160355 -0.001526287873275578 0.7924566864967346
0.4096188247203827 -0.14763830602169037 -0.5731192827224731
-0.16244466602802277 0.024114931002259254 0.22222676873207092
-0.11258461326360703 0.08472874760627747 0.8573617339134216
-0.8191624283790588 0.1517752856016159 1.1892285346984863
0.061242252588272095 -0.169157475233078 -0.48429813981056213
-0.036077454686164856 -0.09048088639974594 0.6843663454055786
0.010360597632825375 -0.0017857491038739681 0.3925735354423523
0.0725383460521698 0.0023290778044611216 0.09861194342374802
-0.23380352556705475 -0.08998818695545197 0.8943950533866882
0.009203024208545685 0.0009041728335432708 0.032431673258543015
0.4293312728404999 0.011446102522313595 0.5856086611747742
-0.09678242355585098 0.0819627195596695 0.7506380081176758
-0.04838293045759201 -0.0352308452129364 0.5126508474349976
0.16416184604167938 -0.034058526158332825 0.19867655634880066
0.37853509187698364 0.024323904886841774 0.569110631942749
0.02376723848283291 -0.04459502920508385 0.5457496047019958
0.014490406028926373 0.017232036218047142 0.5601589679718018
-0.07643288373947144 -0.0367964506149292 0.12066302448511124
0.008124849759042263 -0.004006749484688044 0.024067457765340805
-0.0433073565363884 -0.0744200274348259 0.31167906522750854
-0.07697653770446777 -0.005476874765008688 0.07159284502267838
0.0600380003452301 -0.050957437604665756 0.6529135704040527
-0.025164684280753136 -0.023016370832920074 0.6812059283256531
-0.021626712754368782 0.016481291502714157 0.18987034261226654
0.38262319564819336 0.06665712594985962 0.6799154877662659
0.09765949100255966 -0.02806933782994747 0.1823125034570694
-0.25694137811660767 0.037143275141716 0.8797037601470947
-0.7940899729728699 0.12745927274227142 1.4077870845794678
0.33977529406547546 -0.08617550134658813 -0.5920336842536926
0.0960586667060852 -0.02470964379608631 0.24439984560012817
0.2185841202735901 0.04868689179420471 0.4339086711406708
0.017039114609360695 -0.06635278463363647 0.12967339158058167
0.19990579783916473 0.05150354653596878 0.614805281162262
-0.0009190713753923774 0.10847478359937668 0.7725694179534912
-0.13603779673576355 0.1192830428481102 0.8459510803222656
0.09649459272623062 -0.027568668127059937 0.14982005953788757
-0.035675354301929474 0.04508019611239433 0.5901358127593994
0.0366256982088089 0.06210146099328995 0.7234516739845276
-0.38709017634391785 0.10136021673679352 1.0009633302688599
0.33294644951820374 0.059852197766304016 0.6071924567222595
-0.36367303133010864 0.12589195370674133 1.2320055961608887
-0.46481040120124817 0.18294399976730347 0.9916404485702515
-0.7933472990989685 0.2518540024757385 1.2933719158172607
0.07790366560220718 0.0006401966675184667 0.8411439657211304
-0.07140474021434784 0.054745882749557495 0.5829692482948303
0.017332760617136955 0.019051434472203255 0.741478681564331
-0.3463110327720642 0.13745716214179993 0.9952200055122375
-1.989755392074585 0.7580794095993042 3.9327070713043213
-0.14701318740844727 -0.017376195639371872 0.8324021100997925
-0.3338279724121094 0.10806881636381149 0.9581746459007263
-0.19676212966442108 -0.07179946452379227 0.8023826479911804
-0.03691021725535393 0.004191810265183449 0.0495421402156353
0.040255360305309296 -0.029866620898246765 0.34918490052223206
0.14581456780433655 0.08231445401906967 0.6625494360923767
0.0036561114247888327 -0.00023557513486593962 0.3962305188179016
-1.6587316989898682 0.4527808725833893 2.908195734024048
-0.16967283189296722 0.07738116383552551 0.8654330968856812
0.08579578250646591 -0.0014504726277664304 0.3843955397605896
-0.561010479927063 0.1813434511423111 1.0577118396759033
-0.5108126997947693 0.13239477574825287 0.9334088563919067
0.3509695529937744 0.03344256803393364 0.44339656829833984
0.3082115650177002 0.04022153839468956 0.712701141834259
0.015122268348932266 0.04551726579666138 0.8126938343048096
-0.17304562032222748 0.03767406567931175 0.8596278429031372
-0.39232710003852844 0.04719597473740578 1.2825853824615479
0.1999778151512146 0.0490683875977993 0.46939730644226074
-0.058528486639261246 0.005661421921104193 0.5342094898223877
0.288821280002594 0.0317004919052124 0.6468185186386108
-0.17920133471488953 0.09045188874006271 0.8986350297927856
-0.07832856476306915 -0.02443552017211914 -0.23455020785331726
0.21876120567321777 -0.06341725587844849 0.35534563660621643
0.262155681848526 0.0439235158264637 0.7263429760932922
0.2140064388513565 0.037198856472969055 0.33337637782096863
68.6432876586914 -17.041534423828125 -102.35354614257812
-0.1885935664176941 -0.012154104188084602 0.710267186164856
-0.5738250017166138 0.18175461888313293 1.411342740058899
0.1443074345588684 -0.05077391117811203 0.5834940671920776
-0.4715748429298401 0.14529013633728027 0.9825978875160217
0.049999166280031204 0.04290034621953964 0.4880940020084381
-0.8563835620880127 0.1737438142299652 1.4775686264038086
-0.5661395788192749 0.1336645781993866 1.0517719984054565
0.28785398602485657 0.05494198575615883 0.4904688596725464
-0.09625951200723648 -0.05543714761734009 0.4896339476108551
-3.0511138439178467 1.0165835618972778 4.802933216094971
-1.103676199913025 0.133464977145195 1.457741379737854
0.1275741308927536 0.060687776654958725 0.521586000919342
0.0033743195235729218 0.02977980300784111 0.5358682870864868
0.0394354946911335 0.06914821267127991 0.8186861872673035
-0.008341697975993156 -0.03460210561752319 -0.21896351873874664
-0.11816848814487457 0.08276093751192093 0.8576650619506836
0.39138469099998474 -0.08649414777755737 0.7516108751296997
0.19155488908290863 -0.03057902306318283 0.3247246742248535
-0.31958648562431335 0.0929013341665268 0.9528408646583557
-1.550536870956421 0.6492353081703186 3.2562100887298584
-0.10717076063156128 0.01857663504779339 0.4867006838321686
0.0035994620993733406 -0.02502773143351078 0.4990939795970917
-0.11179029941558838 -0.009629513137042522 0.24418579041957855
0.24985910952091217 0.04239131882786751 0.407648503780365
3.9824044704437256 -3.199802875518799 -21.300893783569336
-0.21176470816135406 0.21714036166667938 1.1797629594802856
-0.04165741056203842 0.032948873937129974 0.8084990978240967
0.37992385029792786 -0.44560548663139343 -1.7818009853363037
0.2461545616388321 0.03951733186841011 0.6738991737365723
0.031593434512615204 -0.02571478858590126 0.2565687298774719
-0.018668487668037415 -0.016624538227915764 0.45113396644592285
-0.4191259741783142 0.13264107704162598 0.9750426411628723
-0.06877753883600235 0.02261616475880146 0.5185502171516418
0.15600378811359406 0.020527491346001625 0.2018124908208847
-0.32050421833992004 0.10114260762929916 0.963976263999939
-0.34792304039001465 0.09609954804182053 0.9637932777404785
-0.48987770080566406 0.15269684791564941 1.2375187873840332
-0.03660724684596062 0.07387609034776688 0.8184470534324646
0.18938307464122772 0.03607245534658432 0.24391348659992218
-0.08423523604869843 -0.014914107508957386 0.7960969805717468
-0.04355483874678612 -0.0033916537649929523 0.7404929399490356
0.07766329497098923 -0.054717641323804855 0.28107380867004395
-0.0017206674674525857 -0.006540380883961916 -0.05178853124380112
0.19548241794109344 0.0003781074483413249 0.3934291899204254
-0.42507216334342957 0.1049705222249031 0.9984267950057983
-0.04940783232450485 0.03731764480471611 0.78499835729599
-0.4852234423160553 0.16037647426128387 1.6194705963134766
0.017152128741145134 -0.056968096643686295 0.12145775556564331
0.05217191204428673 -0.029113920405507088 0.1360066533088684
0.08214475959539413 0.050700582563877106 0.695831298828125
0.24836407601833344 0.04212934151291847 0.687050461769104
0.02073385939002037 -0.051915429532527924 -0.9543635249137878
-0.4433687925338745 0.11290235072374344 1.0471287965774536
-0.3404807448387146 0.10529430210590363 0.9678127765655518
0.11320637911558151 -0.00834767334163189 0.2920338213443756
-0.11284273117780685 0.07707217335700989 0.8641293048858643
-0.572885274887085 0.1254916936159134 1.0536442995071411
-0.2903587222099304 0.06277547776699066 0.9194058775901794
-0.6380671858787537 0.19939954578876495 1.19441819190979
-0.004249601624906063 0.06067047640681267 0.754716157913208
-1.2597224712371826 0.291977196931839 1.9928621053695679
-0.13677243888378143 -0.02202725224196911 0.5726220011711121
-0.8654842376708984 0.17237263917922974 1.2550597190856934
-0.03381260484457016 -0.017907338216900826 0.7069389224052429
-0.007940037176012993 0.10371904820203781 0.770074188709259
-0.24178364872932434 0.083123579621315 0.9197147488594055
-0.03292592987418175 0.029477175325155258 0.8807885646820068
-1.070934772491455 0.22201673686504364 1.3261387348175049
-0.17351175844669342 0.06956792622804642 0.9151373505592346
0.2548116147518158 0.03807337209582329 0.7387893795967102
-0.195986807346344 0.07527641952037811 0.912859320640564
0.08195747435092926 -0.06814537197351456 -0.10183659195899963
0.00235773716121912 0.002052441705018282 0.40929660201072693
0.2589437663555145 0.02832675538957119 0.6309493184089661
0.2514382302761078 0.07459837943315506 0.686917245388031
-0.622009813785553 0.13774289190769196 1.2387696504592896
0.1875269114971161 0.06329070031642914 0.5771584510803223
-0.03001900017261505 0.022549055516719818 0.6664897799491882
-0.08081018924713135 0.007229981478303671 -0.26378753781318665
-0.01717439480125904 -0.0031665877904742956 -0.02133765071630478
-0.0019206900615245104 -0.056541603058576584 0.7164034843444824
0.22487366199493408 -0.10200126469135284 0.39553916454315186
0.10940199345350266 0.014321495778858662 0.33273154497146606
-0.8911944031715393 0.24873937666416168 1.7600175142288208
0.04201957955956459 -0.06921356171369553 -0.005116195883601904
-0.42441150546073914 0.1583680659532547 1.1334635019302368
0.03886445239186287 0.07134190946817398 0.8183265924453735
-0.6472343802452087 0.1545749306678772 1.47357976436615
0.22669346630573273 -0.08142758905887604 0.48382654786109924
0.21735738217830658 0.026479996740818024 0.2919815182685852
-0.06945624202489853 -0.028047557920217514 -0.24606625735759735
-0.0033011676277965307 0.023740679025650024 0.5267563462257385
0.04420727863907814 -0.052033618092536926 -0.03338256850838661
-0.32202449440956116 -0.03874851018190384 0.9624907970428467
-0.19399559497833252 0.04882054775953293 0.9198903441429138
0.07590696960687637 -0.23373284935951233 0.5932263731956482
-0.5507556200027466 0.12174362689256668 1.0329561233520508
-0.7116069197654724 0.14824452996253967 1.1168783903121948
-0.05049778148531914 0.050105419009923935 0.8411529660224915
-0.016412194818258286 0.012421295046806335 0.44655314087867737
0.019363651052117348 0.12457475811243057 0.8377240300178528
-0.34920522570610046 0.13489513099193573 0.9899275898933411
0.08476466685533524 0.13085031509399414 0.5809075236320496
-0.03139251843094826 0.04771478474140167 0.8482105731964111
0.13723786175251007 0.019069712609052658 0.28223082423210144
-0.15676923096179962 0.018683649599552155 0.2263670265674591
-0.46882301568984985 0.13224169611930847 0.955895185470581
-0.07945062965154648 0.04291807860136032 0.8697562217712402
-0.06254743784666061 -0.01404650416225195 0.5260404944419861
0.16574645042419434 0.030068019405007362 0.747581422328949
-0.10195615887641907 0.0065421126782894135 -0.14117766916751862
-0.19117295742034912 -0.1594296544790268 0.876957356929779
0.2814650535583496 0.036378901451826096 0.6591646671295166
-0.023891694843769073 -0.06731511652469635 -0.032299596816301346
-0.06015092134475708 0.0413939505815506 -0.19495558738708496
-0.12325670570135117 0.05248311534523964 0.8997949957847595
-0.8139355182647705 0.12604273855686188 1.2793270349502563
1.2578383684158325 -0.3964857757091522 -2.4851486682891846
-0.4726833403110504 0.14721044898033142 0.986048698425293
-0.017442718148231506 0.05743635073304176 0.7356999516487122
-0.33970052003860474 0.0973583459854126 1.0120118856430054
-0.033415477722883224 -0.007236062549054623 -0.07459865510463715
